ply
format ascii 1.0
comment file created using code by Kazi Injamamul Haque
element vertex 1347
property float x
property float y
property float z
end_header
1.86782801 1.14528501 2.35823393 
1.52877998 1.12205803 1.80562997 
2.20546889 1.08076704 2.92238402 
2.23098803 1.03356802 2.87553501 
1.50629795 1.12296295 1.11408198 
1.52340496 1.111678 1.12077701 
1.46949005 1.10505795 1.71271098 
1.83390498 1.11234999 2.31071091 
2.02211404 1.08394504 1.26972497 
1.85195196 1.13543105 0.897755384 
1.82164395 1.14117098 0.768636584 
1.80358601 1.18673098 0.792171597 
1.57161903 1.12619197 0.888400614 
1.93847704 1.14056897 0.821003914 
1.58883202 1.10897303 0.966656029 
2.27952409 1.09839594 2.151232 
2.41008711 1.11189699 1.76493895 
2.39610291 1.14534402 2.19495893 
2.41529894 1.11404002 1.87774897 
2.26413012 1.12965298 1.70788395 
2.34643102 1.11397696 1.73268998 
2.34337497 1.12005305 1.67330503 
2.3776691 1.10158205 1.49730694 
2.23701692 1.11713195 1.71166301 
2.31835604 1.10999 1.203848 
2.21690202 1.11394298 1.16077995 
2.36362696 1.099509 1.10792398 
1.43125999 1.12841105 3.02681708 
1.44221306 1.09607506 2.8446219 
2.20511103 1.07218695 2.10518599 
1.39509201 1.11278903 2.29706502 
1.43240702 1.13368404 2.8505621 
1.37462103 1.10602498 2.78618503 
1.41264296 1.07841802 2.4241581 
1.40308106 1.06935799 2.58837295 
1.53694296 1.09515405 1.78061104 
1.43962002 1.09252501 1.69588494 
1.87464499 1.116575 0.947393417 
1.68832302 1.13447905 0.946567893 
1.55636501 1.11952698 1.06444204 
1.92947495 1.12930095 1.13038504 
1.78770304 1.10504603 1.31843305 
1.47289896 1.04696 2.42209506 
2.16249609 1.16334498 2.40092301 
2.40871596 1.15534902 1.42846799 
1.515113 1.14367604 1.92605901 
2.20219207 1.10565805 2.00480604 
2.20482707 1.12174499 1.03318202 
2.31241107 1.10568798 1.23533905 
2.12870193 1.08679605 1.62927198 
2.17730594 1.15865004 1.68431401 
2.22041512 1.08551598 2.11669397 
1.90467799 1.10646105 1.42660999 
2.18006706 1.10616696 1.00717902 
1.86653304 1.10730696 0.841304779 
1.80985296 1.12566602 0.868850172 
1.99543905 1.12433004 2.40428591 
1.68373096 1.13142896 1.04718995 
2.36205792 2.10550904 4.49722004 
2.06588101 1.12173903 1.26746094 
1.57809806 1.13886595 1.30564404 
2.449054 1.04710698 1.63771796 
2.12694192 1.08805597 1.64948595 
2.34483194 1.10583198 1.53021705 
2.11276889 1.08844602 1.17304099 
2.46677995 1.10642695 1.26566803 
2.44985008 1.10900199 1.45962799 
2.02353501 1.12850499 1.11834705 
1.45234203 1.10994196 1.69379199 
1.48395205 1.09787798 1.56559205 
1.84691703 1.12122905 0.976381779 
1.81069696 1.10140598 0.815340877 
1.70176399 1.10132599 0.888629675 
1.70123303 1.09981406 0.895147622 
1.57162094 1.09683597 1.28805602 
2.12831402 1.167256 1.33094597 
2.17614603 1.11030102 1.39389503 
1.68284202 1.16113698 1.33095896 
1.91944695 1.08115101 1.32178199 
2.03941989 1.11369598 1.11515296 
1.88787997 1.11478198 0.921520412 
1.32293499 7.29462719 11.2131205 
2.40519309 1.10305405 1.24463403 
1.92221797 1.109218 1.09566998 
1.74875402 1.12178695 0.9540447 
1.89006698 1.13190699 1.07871699 
2.22207403 1.12311101 1.01570702 
2.29388404 1.11049795 2.03922296 
2.23304701 1.12042201 2.01648688 
1.58402896 1.09114301 1.71256697 
1.82131696 1.09597695 1.725137 
1.73465896 1.106022 1.02148199 
1.94866896 1.27532697 2.17556691 
1.78690302 1.12639499 1.82485998 
2.24264193 0.873199582 1.37033296 
1.59165204 1.11483097 1.36114204 
1.55784702 1.11401701 1.85135698 
2.19284511 1.10969901 2.13406706 
2.2681601 1.07253695 1.68398702 
2.32130408 1.11347497 1.64476705 
1.89617801 1.08238995 1.14484894 
1.614259 1.17008805 1.23241401 
1.84427905 1.11534905 1.00073302 
1.78604603 1.10604596 1.30364001 
1.61914301 1.14583802 1.32352197 
1.45737302 1.08347702 1.13819206 
2.33273506 1.09382105 1.49235296 
1.88075101 0.986838102 0.992084026 
2.15783405 1.13555396 0.979253173 
1.84564304 1.09562695 2.35494304 
2.42523694 1.11606205 1.13820803 
1.87977397 1.40277195 1.53361499 
1.88728297 1.145118 1.85373497 
2.11810207 1.14061403 1.15899003 
2.13344407 1.12491298 0.923828721 
2.13717198 1.11953795 0.879386127 
2.13174105 1.14997005 1.00985897 
1.94776404 1.17166197 1.154145 
2.03686595 1.14878595 0.978088021 
1.93430305 1.14465404 1.21701205 
1.64592803 1.15456998 1.44946206 
1.83225703 1.14584398 1.13978601 
1.93103397 1.144315 0.986133516 
1.86702001 1.13743603 1.12633896 
1.715433 1.08934796 1.395787 
2.1827991 1.13006103 0.868583083 
1.88267803 1.12846994 0.966648877 
2.18292809 1.11864305 0.878727674 
1.63387895 1.15884495 1.275033 
2.30836391 1.14268398 0.965861917 
1.77130795 1.13898396 1.18730795 
1.87004197 1.131459 1.09416199 
1.90372503 1.14232099 1.041713 
1.60240901 1.13576102 1.41005194 
2.41342306 1.18000603 1.42458701 
1.63973105 1.14179301 1.29596496 
2.33155298 1.17794597 1.35758495 
1.63594902 1.15599799 1.26162195 
1.49569499 1.25034201 2.65227008 
2.12065601 1.14531505 1.188954 
2.08429289 1.12158096 1.19217503 
2.08136296 1.12242901 1.28384495 
2.05393696 1.08381903 1.52603805 
2.08291292 1.12863195 1.25375199 
1.47314703 1.19273603 2.793046 
2.00665307 1.11111999 2.2281971 
2.28748894 1.08260906 1.35511899 
2.23977304 1.097754 2.01887989 
2.08010411 1.11532497 1.08127904 
2.04468799 1.13795602 1.06789196 
2.02501702 1.116588 1.07425201 
2.07727003 1.15266502 1.16655803 
2.08744001 1.12645102 1.178918 
2.09148908 1.14491498 1.69394398 
2.25564504 1.10249698 1.55048299 
2.10153794 1.14031196 1.20041597 
2.09244299 1.14363098 1.31691694 
2.14000392 1.13281703 0.990677476 
2.17248797 1.11669695 1.43733501 
2.02300596 1.12804902 0.974689424 
2.16573811 1.14111602 1.07985306 
2.2671659 1.14979303 1.34770501 
2.05204892 1.13855898 1.01642096 
1.714715 1.13848197 1.19970405 
2.03239489 1.13359594 1.04023302 
2.11512399 1.06898499 1.18385804 
2.11796498 1.13573694 1.12815297 
1.87621295 1.14200795 1.36087096 
1.61331105 1.15760899 1.23282099 
1.55202997 1.14983201 1.22525096 
1.91538799 1.15512502 1.35139 
1.93229401 1.16245103 1.32302105 
1.76387 1.15831006 1.37037301 
1.67242098 1.13962996 1.39764905 
1.91403699 1.17711794 1.13162696 
1.98214495 1.15211594 1.13396096 
1.75751197 1.15251398 1.26321399 
1.95090103 1.13453305 1.08313096 
1.65369904 1.15861201 1.42207694 
1.63404 1.15718603 1.31125295 
2.01509809 1.12222195 1.26476896 
2.03569889 1.115574 1.30231094 
1.95935798 1.13996303 1.12141001 
1.94568896 1.12803805 1.01155496 
1.93292499 1.12741399 1.089818 
1.58226204 1.09685802 0.98990202 
2.02430797 1.13887 1.15047896 
1.93376803 1.13389397 1.11061299 
1.628389 1.14302897 1.78301299 
1.51514995 1.13740396 1.96095395 
2.04946899 1.09687603 1.90301502 
2.36854291 1.10493398 1.12091398 
1.76510596 1.14795804 1.28359199 
2.20361996 1.09907603 1.34593296 
2.09885311 1.10898697 1.15991998 
1.89979506 1.122697 1.17328095 
1.82894897 1.11645901 1.06072903 
1.64882505 1.14884198 1.29091299 
1.99215102 1.15287304 1.25653398 
1.95729899 1.131868 1.13764203 
1.55838597 1.14255095 1.43397701 
1.58786094 1.16008902 1.32365 
1.65752995 1.09661603 1.40963399 
1.75847101 1.15156806 1.20164096 
1.93467498 1.18123806 1.22752595 
1.88487196 1.20758796 1.90550995 
2.01149297 1.14166403 1.16893601 
1.91956997 1.21124899 2.45328212 
1.75537395 1.135934 1.43195605 
1.72667098 1.13110304 1.24369001 
2.15847397 1.13491404 1.30847204 
1.59480202 1.13076198 1.80497003 
2.05304289 1.13941002 1.63218296 
2.07115889 1.12949598 1.42441702 
2.06582904 1.15824902 1.487445 
1.49299705 1.14115703 1.13298202 
1.442855 1.12693906 1.73039603 
1.48175502 1.13717604 1.14227998 
1.502514 1.16193199 1.12959099 
1.45323396 1.14574802 1.72826099 
1.460917 1.122684 1.75268102 
1.59698606 1.12618196 1.15972996 
1.50531995 1.13595104 1.30741501 
1.88931406 1.14060998 1.49062705 
1.54126799 1.157848 1.08770299 
1.53860104 1.15343499 1.25960004 
1.60731602 1.15888405 1.403916 
1.39309001 1.14374804 1.39556301 
1.430197 1.14862096 1.41528594 
1.53366697 1.14477706 1.27884102 
2.03943706 1.117782 1.89432502 
1.49426794 1.09963596 2.65514207 
1.37640405 1.09934497 2.82715511 
1.42352104 1.09410799 2.72720909 
1.36179805 1.13644803 2.5925169 
1.38521695 1.12725306 2.40568709 
1.17240298 1.15983796 2.59622908 
1.38751698 1.13338804 2.55915499 
1.145594 1.08658099 2.83161807 
1.34969795 1.13284397 2.29114294 
1.56925905 1.12964594 1.78009105 
1.36414099 1.21810102 2.93484998 
1.31855798 1.14748001 2.54974294 
1.52418101 1.14200497 1.84417498 
1.403633 1.08176601 2.54606104 
1.31447005 1.12446904 2.817137 
1.54765701 1.15745997 1.91161001 
1.26524198 1.13600194 2.53341699 
1.55390596 1.16125798 1.90578496 
1.42428195 1.15850496 2.63477802 
1.00287497 1.10315394 2.54661107 
1.13826501 1.128703 2.6005919 
1.009027 1.06351602 2.53597999 
0.959482789 1.12446499 2.52152801 
1.14531302 1.13156295 2.47948599 
1.09345305 1.11137104 2.52170992 
0.982408583 1.15132105 2.56143904 
1.07867002 1.18321502 2.59960103 
1.24279201 1.13711095 1.88225305 
1.24056399 1.14763498 1.88359904 
1.11120498 1.13996696 1.86711895 
1.17160797 1.14790201 1.88150001 
1.27026796 1.14639699 1.84985995 
1.35869396 1.13858199 1.84668303 
1.35763597 1.14002502 1.85363901 
1.16196001 1.08357596 2.93623805 
1.299353 1.12096202 1.86529005 
1.519871 1.13475394 1.15163195 
1.27169001 1.14648104 1.841452 
1.35093606 1.22311103 3.20481205 
1.47687495 1.15002096 1.63011599 
1.55251598 1.16067696 1.33268201 
1.20335805 1.15649903 2.0875659 
1.44029701 1.13642299 1.41620898 
1.25643301 1.13014305 1.75438499 
1.13266397 1.18626595 2.0694139 
1.29282796 1.13960195 2.08203006 
1.33331096 1.15951705 2.01909208 
1.160061 1.16399598 2.3013289 
1.28987098 1.11232102 2.44033003 
1.20203304 1.18653405 2.05704904 
1.10245395 1.145697 2.40731597 
1.24383795 1.15526903 2.05059695 
1.11119401 1.12834299 1.97333395 
1.38848197 1.14330304 1.27720797 
1.10682905 1.13799405 2.23505998 
1.89706302 1.14404297 1.51442802 
1.85625196 1.16276598 1.27959394 
1.51962996 1.15153599 1.84892201 
1.72320104 1.12297201 1.25113201 
1.56871402 1.168589 1.31893301 
1.06599402 1.03429306 2.48890591 
1.50742602 1.13750398 1.72585702 
1.51348102 1.15799105 1.78124404 
1.83327794 1.11892498 4.23559618 
1.58412004 1.14198399 1.33365905 
1.40418005 1.15687704 1.20350897 
1.67575097 1.16159594 1.44386804 
1.30144298 1.15694296 1.65302896 
1.44738102 1.08239806 2.87099695 
1.17605805 1.10016298 4.74354315 
1.04481602 1.01591599 2.45258594 
0.684053183 1.11661899 2.53375101 
0.697590828 1.06935501 2.51806211 
1.178285 1.03653204 2.52567601 
0.788715601 1.12683201 2.51213193 
0.689037621 1.01570296 2.48499608 
1.16292703 1.104074 2.5252111 
0.705149889 1.15518796 2.52670598 
0.789578378 1.14323902 2.511621 
1.33597398 1.12110901 2.90349603 
1.37350595 1.09908998 2.99078798 
0.527337611 1.022174 2.57660389 
1.05195904 1.127684 1.862638 
1.11803198 1.14110196 1.87707198 
0.985631704 1.12183595 1.844401 
1.17289698 1.13982904 1.88440096 
0.772176027 1.11149895 2.30358601 
0.988781095 1.16030502 1.87737298 
0.756259918 1.11546099 2.40749311 
0.748718977 1.14720905 2.25227594 
0.727589786 1.16012502 2.29219198 
1.12240803 1.09512699 1.693501 
1.08041 1.109231 1.59107399 
1.14781499 1.12521398 1.68576396 
1.04285598 1.09830296 1.63048506 
1.06925499 1.11606503 1.66817701 
1.13028896 1.13017797 1.72476697 
1.07653296 1.11317205 1.70802903 
1.07665706 1.13402104 1.69740498 
1.12865305 1.13943994 1.74238002 
0.943548322 1.13463104 1.81868505 
1.20534205 1.15220904 1.84544802 
1.18914604 1.13075304 1.34656 
1.230268 1.12886798 1.71346402 
1.16366696 1.16124105 1.47406006 
1.17586803 1.13734102 1.48607099 
1.00445402 1.16954505 1.85380101 
1.181862 1.13479996 1.42146397 
1.16532099 1.14317799 1.58490801 
1.04061794 1.15196002 1.83870196 
1.32308197 1.141312 1.22271597 
1.16071904 1.07887304 2.59929299 
1.12519503 1.18849099 2.52158189 
1.082008 1.15568805 1.835464 
0.770582914 1.13993597 2.06960392 
1.38058603 1.10901701 2.71459293 
1.29380906 1.16079104 2.88720298 
1.21990299 1.17856705 2.63761091 
1.33237898 1.14014101 1.88489103 
1.59687996 1.15661001 1.28936696 
1.29304802 1.21125495 2.73119497 
1.49514306 1.11894596 2.01300192 
1.16784406 1.20947695 2.70684505 
1.59028006 1.11664796 1.79296601 
1.42107296 1.13708794 1.39380205 
1.14586496 1.14688694 2.07124901 
1.37666202 1.11895502 1.80601501 
0.970960498 1.16223395 2.06576991 
1.49591804 1.13302004 1.95006001 
1.53417802 1.14555204 1.26761794 
1.93657994 1.13758504 1.21133101 
0.908200383 1.14154899 2.02181506 
1.22665203 1.12843502 1.86201 
1.26262403 1.12959003 1.96811998 
1.38886499 1.15064502 1.00621402 
1.29890203 1.11147702 2.55085897 
1.23249996 1.11122203 2.19111204 
1.698439 1.17022097 1.26495302 
1.25586104 1.11698103 2.47485089 
1.52368104 1.13297999 1.87629795 
1.38867295 1.07532299 4.08317184 
1.67261004 1.14235997 1.11198997 
0.891747594 1.11659598 2.40975595 
1.88515496 1.14523399 1.37916303 
1.282547 1.17258096 2.60394597 
1.24424601 1.167202 1.65933001 
1.18671703 1.15386403 2.04920411 
1.73993099 1.15371096 1.20122302 
1.52339697 1.14776695 2.33636498 
1.37069201 1.16041195 0.999292016 
1.29121399 1.162655 2.11589694 
1.325647 1.14212894 2.07780409 
1.83150804 1.15332401 1.273772 
1.56862795 1.16016805 1.32191098 
1.25806201 1.11265802 2.18685794 
0.900943816 1.12656796 2.189749 
1.254197 1.11647201 2.77595711 
1.74550498 1.13716805 1.40360606 
1.24152803 1.16073501 1.66149104 
1.43752301 1.08666897 4.03854513 
0.823674917 1.14222598 2.21295309 
1.20421004 1.14954305 2.45236707 
2.00553298 1.13916504 1.38466501 
1.49875498 1.16272402 2.28344798 
1.51042199 1.15207303 1.38698804 
1.23629606 1.13194895 2.27993703 
1.35050595 1.13105905 2.17736912 
1.22548401 1.15432405 1.98445296 
0.816125393 1.16416597 2.11730099 
1.88283396 1.13690805 1.20757306 
1.20196199 1.14966094 2.1715579 
1.25532806 1.175475 2.1165719 
2.03315592 1.13856006 1.34424305 
1.30414701 1.15839803 2.03963399 
1.74090898 1.14541197 1.32067001 
1.185987 0.95930028 2.83076 
1.51558006 1.17389202 1.39750004 
1.570508 1.17409801 1.40318096 
1.47106504 1.11351097 2.821141 
2.04601908 1.11218202 1.77173495 
0.685862184 1.06137896 2.48264003 
0.86175561 1.12659299 2.521173 
1.39262104 1.11478102 1.16021705 
1.35390794 1.13008404 1.80126798 
0.885478079 1.18039799 2.01101303 
0.879989028 1.16006505 2.12982202 
1.18136895 1.10855901 2.10828495 
1.73090398 1.192065 2.22425699 
1.048944 1.16801596 2.47449994 
1.04748797 1.02902901 1.616202 
1.46385098 1.12162006 2.84489107 
1.00759399 0.859375477 0.780179083 
1.01342595 0.832881093 0.764371574 
0.90121901 0.74915272 0.67317301 
1.03578496 1.01421297 0.711264908 
-0.287498206 0.369426608 0.277285099 
0.207384899 0.371021807 0.333811194 
-0.164726406 0.317244202 0.401208699 
-3.7982471 0.0301956404 -0.0194308795 
0.846064329 0.398089796 0.562199414 
1.00509596 0.810744524 0.761055887 
0.282067388 0.358937204 0.371372908 
0.477721095 0.390892506 0.413376004 
1.00052905 1.04292595 0.777137816 
1.06056297 0.931404471 0.71335578 
0.516469717 0.382639289 0.704430819 
0.534479022 0.307031691 0.687003672 
1.01823103 1.09385502 0.78197968 
0.478755593 0.270552605 0.667939186 
0.514721811 0.362202197 0.646677613 
0.87048018 0.39464581 0.574750721 
0.801736772 0.386014014 0.565243721 
0.755260706 0.384115487 0.400594711 
-0.151014104 0.352509797 0.265932113 
0.691832483 0.38174209 0.403416693 
-0.189646095 0.325754195 0.230557501 
0.26828739 0.363224804 0.34378019 
-0.570903122 0.102949001 0.1141271 
-3.36087203 0.131928205 -0.428739905 
0.635691404 0.380076706 0.627669096 
0.943651378 1.09888005 0.147098094 
1.02916503 0.391983509 0.540598273 
0.928644419 0.778915823 0.299383193 
1.02110803 0.40793559 0.539144397 
0.95537132 1.09384203 0.1365702 
1.09650695 0.753249824 0.306681901 
1.02798796 0.758850574 0.742492974 
0.661759973 0.376826793 0.602623522 
-0.47299549 0.33640331 0.128514096 
-0.365983605 0.372772604 0.0590351783 
-0.626808405 0.0433912985 0.0941284299 
-0.576391816 -0.0963808969 0.0564006008 
1.08808196 0.791549385 0.290514797 
-12.3664398 1.18139696 -1.47898698 
0.927284122 0.769616783 0.297481686 
0.861530781 0.407886297 0.430250198 
0.859544575 0.390754491 0.435018092 
1.01328194 0.845202088 0.765190184 
1.01704204 0.788422883 0.736448109 
1.00488901 0.993623495 0.806277275 
1.00106704 0.884303093 0.780138493 
0.667791426 0.403763413 0.282436609 
0.723240077 0.392387003 0.299457699 
0.608032882 0.370147794 0.284735709 
0.559632182 0.395291388 0.431111008 
1.09035003 0.795759022 0.300694704 
1.02155697 0.800895691 0.741327882 
-2.57711005 0.168040007 -1.31031501 
0.738781095 0.241481498 0.609832406 
0.76887238 0.399332494 0.333775192 
0.684333801 0.38919881 0.309652209 
0.922882915 0.378668487 0.540280998 
0.777547896 0.38684991 0.446538687 
0.721746027 0.390877098 0.288764685 
0.878952503 1.17009306 0.0154781304 
-2.0393939 0.110803597 -0.701663315 
-3.08951998 0.164891601 -1.39343798 
-5.22829103 -0.310352713 -1.40198898 
-3.83260608 0.0366970599 -1.68124104 
-3.41503501 -0.00518503785 -1.06322503 
-2.22757697 -0.0203508902 -0.687823892 
-0.475644797 0.805223405 -0.59770298 
-5.9920578 -0.163302496 -2.04920912 
-3.50414801 0.340799093 0.788810611 
0.825748801 1.03760695 0.0749614835 
0.777666688 0.377651602 0.34297961 
-2.04431796 0.0728621632 0.259154588 
0.677849293 0.389070094 0.43162781 
-0.879051089 0.31229949 -0.568516374 
-0.395547897 0.81587702 -0.617765009 
0.93931061 0.371300012 0.530061424 
-0.40807271 0.808157086 -0.584820211 
-3.07930207 0.264634103 -1.61482704 
-3.20325708 0.0214569699 -1.68280602 
-2.40205002 0.0803523436 -1.04812098 
-2.42818499 0.136293903 -1.14493799 
-4.75611115 -0.555974603 -1.28004098 
-3.05560207 0.0293556601 -1.68356097 
-0.854352713 0.365528911 -0.539164424 
-3.28880596 0.209090695 -1.40427399 
-8.02192879 0.0622800998 2.76147795 
-7.15320396 0.0457548387 2.36220002 
-0.61024332 0.0935942382 0.00605374621 
-0.525522888 0.267770499 0.132496506 
0.7682271 0.358221412 0.393276602 
-0.410000712 0.319242209 0.0799669623 
-0.3267304 0.598808587 -0.299857408 
0.731810272 0.410284698 0.422179013 
-0.0843453407 0.361699998 0.045723971 
-0.622121513 0.439100891 -0.347092211 
0.852551579 0.383151114 0.428770095 
-5.65186977 0.117074303 0.924329996 
1.02149105 0.816072702 0.753892124 
1.01610994 0.81254667 0.764940679 
0.795596778 1.09235406 0.106348 
-4.15181923 0.160188004 -2.25074005 
-4.1050272 0.118702002 -2.35684609 
-3.738621 0.483367205 -0.449131012 
-2.96857095 0.430882186 -0.344069988 
-0.172336295 0.37571761 0.194123998 
-1.57611001 0.437150508 -0.698882699 
-0.742187381 0.399008811 -0.385019511 
0.286155701 0.391555399 0.251570612 
-0.382171005 0.360803694 0.1463871 
0.723053515 0.253677309 0.613379419 
-2.22490811 0.164144501 0.275090694 
-1.21634495 -0.0306953005 -0.0316255093 
-4.20062923 0.387922287 -0.222069293 
-3.71128798 0.243138298 0.736437321 
0.810473621 0.395541489 0.583631396 
0.782506108 0.384303689 0.334871501 
0.800707281 0.40767771 0.400514692 
-2.38769197 0.0191593897 -1.13564706 
0.84809953 0.380282998 0.411706388 
0.655457497 0.376773 0.553260684 
0.634593785 0.376866788 0.555794477 
-1.80663705 0.194954395 -1.24922097 
-3.02625704 -0.196356401 -0.969528019 
-3.14902592 -0.0279062707 -1.17081499 
-3.54094291 0.141845807 -1.26003206 
-0.70554781 0.690864325 -0.500901222 
-0.53098619 0.370158106 0.0632827282 
-0.42384699 0.217915297 0.0134848999 
-1.16984403 0.0550538898 -0.370045513 
-0.606720686 0.3849805 -0.271760315 
-0.4912 0.325068802 -0.380334109 
-0.612366319 -0.0409239382 0.141718507 
-3.04345298 0.462687105 0.2205268 
-0.160256103 0.398865312 0.242176607 
-6.21067381 1.12763095 -1.045048 
1.17118299 0.484142691 0.43576929 
1.19033599 0.401077896 0.565803528 
-3.40862107 0.155235499 1.72511697 
-5.81601477 0.0465256087 2.26138806 
0.519563794 0.267049313 0.706511378 
-4.79732704 0.54410249 -0.583860219 
0.924752116 0.388170391 0.53393048 
-3.62347507 0.428769708 -0.252944499 
0.911165476 1.11985695 0.0217523593 
-0.544004798 -0.059360031 0.0080832243 
-1.05652499 0.346249789 0.0155267101 
-0.617468417 0.0212761294 0.0955632925 
0.678006172 0.390703291 0.584057808 
0.798260272 0.385623097 0.575354517 
-0.857958019 0.950155377 -0.734769285 
-3.77329206 0.195835501 -1.51065803 
0.88882637 0.3825275 0.41491589 
0.3001616 0.386949003 0.264133602 
0.676576674 0.376563311 0.408812612 
-0.607032895 0.325548112 0.168859705 
0.612106085 0.377866089 0.62417841 
-0.58739388 0.336908311 0.139143497 
0.541806579 0.3302764 0.674381971 
0.631937623 0.386592805 0.618758082 
0.946518481 0.377038211 0.527576685 
1.04645896 0.393427491 0.544173717 
0.729266524 0.382243693 0.574118376 
-0.412454695 0.80642283 -0.652870119 
-0.516053915 0.79946208 -0.631129324 
-2.80138707 0.0079356879 -1.44790399 
-1.42927897 0.608099103 -1.39237499 
0.768029511 0.35441941 0.373964399 
-0.739782214 0.112194099 -0.0773784518 
1.167871 0.374645889 0.212911502 
1.17249298 0.379011095 0.236851498 
0.954384327 0.398225009 0.162764207 
0.968338013 1.12241101 -0.113792799 
-1.74244797 0.2254861 -1.27129197 
-2.60893202 0.199411795 -1.63253903 
-1.43100798 0.00922368467 -1.09359598 
1.003564 0.389734507 0.541446924 
-0.491224587 0.147298202 -0.568703711 
-0.407040596 0.213889405 -0.469441712 
-4.62371016 -0.173021495 -2.69099307 
0.714694321 0.258056015 0.593287289 
0.798862875 0.394413412 0.557952404 
0.717639029 0.374581903 0.666406095 
0.684444726 0.393422097 0.642835796 
0.488297492 0.327796489 0.640281916 
1.18136096 0.390995085 0.538223624 
0.726309299 0.420737296 0.351099014 
-3.61668301 0.991674125 -3.96038699 
-2.82395601 0.77263087 -2.81813312 
-2.55182195 0.279631913 -2.18487 
-2.44094706 0.158415005 -2.15705991 
-2.37768412 0.311427414 -2.0677619 
-3.43906593 1.07080102 -3.80395603 
-2.85697889 0.199741498 -2.40750909 
-2.86786699 0.750675619 -2.80781507 
-3.43982601 0.984629214 -3.16524792 
-2.62106109 0.480646402 -2.85143495 
-2.95262098 1.24551702 -3.49119997 
-2.74944592 0.273748994 -2.29546595 
-3.16694403 0.919774473 -2.98910499 
-2.85373497 0.308756888 -2.36526608 
-1.66621006 0.452438414 -1.54257202 
-3.29787397 1.077353 -3.10781002 
-1.76838601 0.256412894 -1.54193604 
0.682329178 0.358640999 0.302587688 
-3.29914093 0.825686574 -3.05938411 
-0.683073878 0.0645377114 -0.149041906 
-2.82737994 0.506050527 -2.93690705 
-2.90879989 0.741064727 -3.22607708 
-2.8802681 1.18638897 -2.84177899 
1.07972205 0.918067992 0.28027001 
0.90590632 1.14600098 -0.26719889 
0.850965977 1.16372001 -0.316383511 
0.763921618 0.410247505 0.106757 
-0.414539307 0.150620699 -0.0989447832 
-3.50431991 0.245936096 -1.80713105 
1.07564604 0.773153782 0.303208113 
0.807673573 1.15623999 -0.328828514 
-2.79934311 1.09739101 -3.2263329 
-4.77575493 0.1102755 -4.01613998 
0.735094905 1.13079298 -0.414867103 
-3.25193906 1.21926999 -3.04984808 
-1.51090705 -0.280571997 -1.41554999 
1.18360698 0.399489492 0.166514695 
0.676684499 1.15053403 -0.335970014 
0.913835526 0.37698859 0.531337321 
0.689571977 0.416471213 0.416705996 
-3.43946099 0.793660223 -4.08039904 
-3.1269381 0.73943311 -3.53192401 
-3.65272188 0.790862501 -3.57628107 
-2.44955492 0.490325987 -2.7590611 
-3.27599406 1.01311004 -3.77815604 
-3.4034009 0.787040412 -3.40298295 
-1.55052602 0.934361696 -2.24578094 
-1.28989697 1.12449801 -2.11439896 
-1.21595395 1.117221 -2.02693892 
-4.06444597 0.314599693 -3.40145898 
-4.88594294 0.281135112 -4.67396498 
0.593796611 0.577210784 -0.467564493 
1.207196 0.395729303 0.205099002 
0.862636507 1.12743902 -0.274196595 
0.928774118 1.12100005 -0.341392189 
-3.09734797 0.175137401 -2.57136703 
-4.91164303 0.30697149 -5.26358891 
-4.35309505 0.194653198 -4.28313684 
1.143785 0.388095111 0.226103395 
-0.0976133272 0.564091623 -0.240488902 
-0.552626014 0.27940619 -0.189222306 
1.006675 0.407039106 0.558783889 
0.261429012 0.390871912 0.236693293 
-0.952766418 0.314262211 -0.639436781 
-0.49162209 0.365862608 0.136936903 
-0.598511875 0.343536288 -0.266205698 
-2.03393698 0.283395886 -1.56033802 
-0.816672087 0.34593609 -0.499525189 
0.714982212 0.379689097 0.425929189 
0.768324673 0.42163831 0.548101425 
-0.820033371 0.262748897 -0.565403223 
0.752455175 0.410746902 0.442920893 
-0.487260193 0.368179411 0.141477197 
0.977081478 0.852509618 0.754175723 
0.850823283 0.421808809 0.403335601 
0.445863605 0.311892599 0.602856219 
0.473317504 0.266325712 0.668327212 
0.485836893 0.274209589 0.666989684 
-0.232747599 0.417041391 -0.0236940403 
0.665304482 0.392197102 0.623444915 
0.893294394 0.402667314 0.522302806 
0.90843308 0.398899496 0.538473189 
0.904956579 0.429631501 0.500297487 
0.585820913 0.280231386 0.616209924 
0.478760988 0.394178897 0.674547315 
0.476761907 0.350531012 0.660980105 
-2.47601795 0.218074501 -1.54679 
-0.53943789 0.193361193 -0.169317394 
-25.3544407 0.969690323 -19.7006893 
0.741691113 0.441420406 0.518923998 
0.92046231 0.406399399 0.553406179 
0.477592707 0.329194814 0.643329918 
0.477359504 0.108843401 0.660642982 
0.370382786 0.424648315 0.528486371 
0.970866978 0.891367018 0.75145328 
0.985531211 0.872319996 0.741331577 
0.942079127 0.954303801 0.777703226 
0.969397426 0.877004325 0.767610073 
1.10471797 1.14382505 0.309417695 
0.67250371 0.279029489 0.586034179 
0.483619809 0.240278706 0.659457803 
0.63480562 0.406411886 0.59015578 
0.484524995 0.289700389 0.665478587 
0.423330694 0.369898885 0.65677923 
0.495141 0.393330514 0.641774178 
-0.511218309 0.373201698 0.487569988 
-1.66622806 0.320831597 0.213679403 
0.739664078 0.257604688 0.613822877 
0.468452513 0.106837198 0.625078619 
-0.631307781 0.388037205 0.547164619 
-1.720137 0.371270686 0.201766998 
-1.682127 0.341297388 0.276306689 
-0.644595921 0.375465512 0.578246713 
-0.626620889 0.0551568605 -0.0837155581 
-0.491427809 0.375997603 0.141497999 
-2.67989898 0.0163016301 -1.36873305 
-0.662364125 0.089693971 -0.198944107 
-3.43446994 0.0572157316 -0.652947187 
-1.45784497 0.208496198 0.356017709 
-1.25261497 0.233506098 0.425335914 
-0.987910509 0.37265569 0.449739605 
0.655970097 -0.0118325902 0.639790416 
-0.627968192 0.0744324028 -0.164246395 
-4.84843302 -0.131876007 -2.81939912 
-0.707401216 0.438057989 -0.398723811 
1.15732002 0.433871388 0.924487591 
1.00656402 1.06278896 0.706003129 
0.995765805 1.07054806 0.707477927 
0.941187382 1.08866203 0.791871905 
1.17092299 0.443132997 0.920916915 
0.951068521 1.15926898 0.774568021 
0.898989022 1.11765099 0.795577884 
1.007447 1.08344698 0.709397912 
0.995405018 1.05276597 0.737185776 
0.99683702 1.04709005 0.746718407 
1.02182496 1.15863001 0.684806287 
0.999926925 1.01233399 0.707950473 
1.00960302 1.00364697 0.717330277 
0.993990779 1.09138703 0.679193377 
1.01024401 1.17561197 0.751731992 
1.01025701 1.16614294 0.800979674 
1.12697506 1.12676895 0.288557589 
0.997359872 0.818986416 0.691643476 
0.46511361 0.151807502 0.635254025 
-0.73378849 -0.0185300596 -0.0615233183 
-1.33158398 0.0697091818 0.363663614 
-1.44491899 0.352503389 0.325705409 
-0.650103688 0.387172699 0.526498675 
-0.729655683 0.305973887 0.597578824 
-1.38938296 0.0710323602 0.330445707 
1.01679695 0.42536971 0.539723277 
0.490193009 0.227812707 0.635993719 
0.4298172 0.416650414 0.552212477 
-0.819508076 0.268076688 0.575628281 
-1.64115095 -0.0392242484 0.476423293 
-0.72227031 0.288502097 0.631800592 
-0.718542576 -0.0638771579 0.00755345821 
0.485805899 0.412192404 0.725869894 
-0.536143482 0.369837701 0.743337214 
-0.523895323 0.369657189 0.729368329 
-1.67574203 0.360779494 0.664088011 
0.692655921 0.439761013 0.907355309 
-3.56471109 0.232400998 0.459552497 
-0.825703919 0.375111312 0.574962914 
-4.89924097 0.385320693 0.224714905 
-0.989622414 0.403688014 0.691086888 
-1.20474601 0.26005581 0.412461787 
-1.40225601 0.232089102 0.412283689 
1.15389705 0.429070085 0.919068813 
1.17130697 0.432247907 0.942697704 
0.927126288 0.427651614 0.934908628 
1.17556703 0.415290505 0.925075114 
0.729691327 0.399049193 0.337624997 
0.481159896 0.122260801 0.661007226 
-1.98549998 0.26143679 0.585586429 
-3.69748211 0.285257906 0.53244102 
-3.24800706 0.296911687 0.585938692 
-0.170953795 0.421310514 0.847313285 
-0.923422098 0.215816498 0.658375978 
-3.87635303 0.233943895 0.515784621 
-0.0694907904 0.399380296 0.882950902 
0.547249198 0.4232544 0.91535759 
-0.616526783 0.416319698 0.795136929 
-2.45153999 -0.151132405 -1.09593797 
0.562307775 0.115611903 0.628927171 
-0.645010591 0.383297712 -0.46027869 
-0.465590596 0.0952417329 -0.0484770499 
-2.96911192 0.284118801 -1.73020804 
0.50515008 0.114453301 0.66929853 
-0.778119326 -0.0200678594 0.0311971903 
-0.613051713 0.460945815 -0.346700013 
0.253582209 0.419295996 0.881542206 
-0.956705272 0.306623191 0.623307705 
-0.581381083 0.372653693 0.672195911 
0.50717479 0.404153913 0.64812088 
-0.692047417 0.400697112 0.594838023 
0.561357319 0.417865306 0.877488792 
0.721930981 0.416794688 0.900449872 
-0.911954224 0.264949292 0.679347098 
0.911380529 0.42399931 0.508710682 
-3.64726806 0.201592803 0.492134988 
0.50384438 0.3590056 0.694629073 
0.644787788 0.393351495 0.384263188 
0.595276475 0.397343814 0.372807294 
-2.14131308 0.383904308 0.714653373 
-3.06614399 0.370988786 0.561002374 
-0.693504989 -0.00521913916 -0.0614613295 
0.636724114 0.428359389 0.562749922 
-1.11196601 0.272439808 0.482429713 
0.982389927 0.902767301 0.752796888 
0.977911711 1.11284006 0.787947178 
0.993617475 1.17167902 0.777858615 
0.967784226 1.17133403 0.777783394 
0.606383383 0.419149399 0.53390801 
-0.249403596 0.479260892 -0.133599997 
0.730817616 0.39318949 0.3574121 
0.548592925 0.419782996 0.425867885 
0.478695214 0.41796729 0.412553698 
0.341180891 0.110074297 0.617707789 
0.423240989 0.259287298 0.600631118 
-0.532375216 0.439413488 -0.248687997 
-0.566747487 0.408177108 -0.230162904 
-0.606455684 0.414524704 -0.217753202 
-0.705788672 0.548256874 -0.477487087 
0.51979202 0.265763313 0.592400193 
-0.472530395 0.510816872 -0.232591495 
0.456993788 0.161622107 0.628826916 
-0.831267715 0.263189495 0.594632804 
0.759247124 0.423265308 0.554230928 
-0.918861389 0.225487098 0.628143907 
0.4376553 0.427766889 0.683040082 
-0.86705792 0.317528397 0.535856187 
0.597784877 0.397055894 0.648756325 
-1.64425504 0.29854539 0.63794601 
0.631136179 0.418118685 0.903357387 
0.61408478 0.43071419 0.903103113 
-0.735590219 0.378242195 0.728343606 
-0.679360628 0.361115485 0.899964988 
-1.03471994 0.32147631 0.699950218 
0.919605374 0.424836993 0.922114313 
1.02245605 0.406686515 1.01482999 
1.02241302 0.408513814 1.01135802 
1.16600096 0.430309713 0.951803982 
0.953447223 0.403845996 1.00861204 
0.973966599 0.415568292 0.983351886 
0.957641721 0.424398601 0.939769983 
1.02652097 0.422979712 1.02305901 
1.18155599 0.438305795 0.959736288 
0.955584288 0.403902501 1.08032703 
-0.867390573 0.363736093 0.64108032 
0.546396673 0.423261493 0.881088614 
-2.73007798 0.256551504 0.597372174 
-0.981334329 0.38317439 0.480636299 
-0.892095804 0.391979605 0.754672587 
-0.931355476 0.354722708 0.423640698 
-0.821633101 0.398712486 0.812522471 
-2.05029798 0.379406512 0.661037207 
-3.52370191 0.32644999 0.438647211 
0.808681071 0.268579006 0.999610782 
0.801286519 0.39195779 0.966439426 
0.497953206 0.39336881 0.680213213 
-3.357939 0.0989470631 0.580071986 
-3.793118 0.157831207 0.438896507 
0.80298692 0.293556005 0.991841674 
-0.1826929 0.39849031 0.854150176 
-0.746187389 0.394243091 0.843360126 
-3.59131098 0.107008003 0.465390205 
-0.948954284 0.368797511 0.850097597 
0.998031795 0.41358161 0.992424905 
0.741681278 0.403129905 0.363563299 
-1.63628304 0.394159108 0.614224374 
-0.689124703 -0.134408504 -0.108803898 
0.436827391 0.317364305 0.709025204 
-1.833287 0.3471497 0.579126716 
0.875190914 0.304966211 1.00940204 
-1.47727895 0.38480261 0.226235405 
-0.551640928 0.418696493 0.50410521 
0.964157999 0.399746388 1.17843699 
0.930223882 1.10001397 0.766027927 
0.907289326 0.400502712 1.10761094 
0.899205387 0.393286288 1.13919699 
0.899140418 0.399490297 1.104509 
0.938094079 0.398982912 1.12702703 
0.925608873 0.393220305 1.10368001 
0.951732218 0.387567997 1.111426 
0.811653078 1.14605403 0.792939007 
0.822686017 0.430128396 0.543252707 
-0.247213498 0.468970805 -0.101258397 
0.700288892 -0.0292847194 0.615428329 
1.01316905 0.856369972 0.673665524 
1.00101602 0.817953706 0.696786582 
0.437105298 0.296501696 0.619032919 
0.652917981 0.421062201 0.383991808 
0.799715817 0.143598899 1.06046104 
-0.770201683 0.38210541 0.573241889 
-0.537482679 0.354726702 0.699261725 
-0.547549486 0.400844812 0.505226374 
-1.23749006 0.404159695 0.304515392 
-1.16367602 0.342933714 0.273085713 
-2.69300008 0.150623903 -1.39716995 
0.805612683 0.422447801 0.404693514 
-3.23850203 0.111318998 1.29546595 
-1.03959596 0.332124203 0.666260123 
-0.896806717 0.083075501 0.895976424 
0.9364205 0.07780011 1.09993505 
-2.72266293 0.264739007 0.485986888 
0.645437777 0.427509815 0.89419663 
-0.309706002 0.371953696 0.54027307 
-2.65907001 0.169125706 -1.65628803 
0.400508612 0.271417588 0.566748679 
-2.93037009 0.238834694 -1.73778498 
-1.59943104 0.108141102 0.60609889 
-0.888082325 0.227901801 0.560707986 
0.355064899 0.2974675 0.675743103 
-0.278973609 0.406198889 0.829970121 
0.532978296 0.398773015 0.620836973 
0.778478384 0.407872707 0.954885781 
0.514585316 0.3013933 0.578341901 
0.95272851 0.402101606 0.976801574 
1.00252998 0.414806992 0.988519073 
-1.91583896 0.118484803 0.558415473 
-2.39458394 0.110396698 1.25928402 
-3.23867893 0.260555893 1.54663706 
0.2865493 0.02298305 0.569034696 
-3.34635091 0.223219499 1.56483197 
0.797155321 0.390370011 1.07422304 
0.716933608 0.148269594 1.06364501 
0.548041821 0.412644386 0.897234082 
0.747092903 0.420408189 0.90658772 
-3.40899205 0.109495401 1.69571495 
0.50294143 0.412801892 0.887939274 
0.932313025 0.190506503 1.11587596 
0.747327328 0.43127501 0.898951292 
1.04406798 0.351305693 1.24279797 
1.04159606 0.359651804 1.23472297 
1.05432105 0.4021357 1.23908103 
1.05728304 0.302672297 1.22769904 
1.017524 0.406651407 1.17298305 
0.988029122 0.366200805 1.226524 
0.974966228 0.368136913 1.21467698 
1.00968599 0.398445904 1.22203195 
0.903337121 0.393463194 1.11689401 
0.939774394 0.39538759 1.13987195 
0.909250021 0.397856206 1.11923802 
0.973934412 0.412776202 1.22565305 
0.443745494 0.293918192 0.597849429 
-0.934210479 0.393247187 0.286689013 
-0.318072706 0.38726601 0.485373288 
0.677289188 0.288273513 0.590830386 
-1.301965 0.32560271 0.40425849 
0.46256721 0.286399692 0.585760474 
0.607545972 0.420345485 0.540566683 
0.954534173 1.11785495 0.78575772 
0.972507715 0.927782416 0.730442405 
0.875397384 0.820057392 0.668682814 
0.696837902 1.16014397 0.776932597 
0.891572416 1.13874698 0.835867226 
0.986829996 0.952567101 0.68338573 
0.933942318 0.388652503 1.18738699 
0.920925796 0.883549571 0.683098018 
-4.46971989 0.262089014 -0.729545176 
0.865635514 1.13656795 0.850331426 
-3.85637689 0.203509703 -0.594222128 
-0.502523899 0.347285807 0.425433308 
0.3623254 -0.0432450883 0.610484123 
-1.09149003 0.384021103 0.254956007 
0.466076404 0.120488897 0.628917396 
0.52191329 0.287336498 0.586817384 
0.458318889 0.1401373 0.627172828 
0.699278712 0.276016891 0.621374428 
-1.00488698 0.385495305 0.310855091 
-0.827985883 0.315777689 0.330108613 
0.367905408 0.244500905 0.67686671 
0.407400697 0.395128399 0.580567479 
-0.384605587 0.353352904 0.469833702 
0.730965018 0.214782596 0.605891526 
-5.07947588 0.186774001 -0.803296089 
0.4954364 0.390239686 0.635127425 
-3.68467093 0.159650505 -0.754261017 
-0.651319027 -0.000867053925 0.0395992994 
0.408485502 0.262278914 0.689834893 
-4.56706285 0.164304197 -0.841516674 
-0.75999862 -0.1278456 -0.115760997 
-1.82628906 -0.1008237 -0.355103403 
1.06810606 0.0526355989 1.15125203 
-4.49098206 -0.205103204 -2.54810691 
-0.792138815 0.388107985 -0.465925306 
-3.17083907 0.0930158719 1.39665306 
0.653426826 0.424607992 0.573899508 
-1.48889399 0.0766921714 0.570218682 
-3.49167204 0.109145597 1.52723205 
-1.75765204 0.0644040778 0.55461818 
0.582557797 0.416746289 0.526961684 
-0.714238584 0.0175956301 -0.0893830135 
-0.793163776 0.39269051 0.419209212 
0.580155015 0.397679389 0.601197779 
-1.29644001 0.359438986 1.55471003 
-1.24353504 0.367661595 1.50057399 
0.998279572 0.401226699 1.02210605 
-2.21209311 0.353725404 1.64667904 
-3.222574 0.280246288 1.74153304 
-3.40322995 0.308472186 1.80692899 
-3.66236901 0.466971487 1.86338198 
-3.3422811 0.341319114 1.76566303 
-2.86688805 0.163207501 1.47719705 
-3.3775351 0.308300614 1.62118006 
-3.38148689 0.244672805 1.62039304 
-2.54069996 0.220219299 1.22581005 
0.912880182 0.396108806 1.14147902 
0.854632199 1.14675999 0.792831898 
-1.77682698 0.0699759498 0.612685204 
-2.5817709 0.151419997 0.494652808 
1.04343295 0.360921204 1.231686 
1.11226106 0.392269194 1.26559699 
0.899943113 0.382416815 1.30645001 
0.85520798 0.388130814 1.29353404 
0.947787583 0.363116086 1.30356705 
1.10660195 0.363874495 1.27133501 
1.10070598 0.380400896 1.25275803 
0.43577531 0.305320203 0.599597514 
0.481952906 0.359141707 0.67222321 
0.440817088 0.201442897 0.603726625 
0.311097085 0.110230699 0.600519419 
0.452672511 0.307393789 0.638642013 
0.480134994 0.1027091 0.634836376 
-3.09252501 0.446454912 -0.415065914 
0.465481609 0.243715793 0.640479803 
0.904392421 0.427471012 0.923033416 
1.00762999 0.990557909 0.679830074 
0.311209291 0.269535989 0.655286789 
0.568062723 0.4204669 0.870444119 
-3.03247499 0.0546016991 1.34499896 
-1.05329096 0.38530311 0.234714702 
-3.13099098 0.366773814 -0.588009417 
-0.415201306 0.339442492 0.400375009 
-0.691196024 -0.0510822795 0.0193804502 
0.474088311 0.398040593 0.697203398 
-0.805276871 -0.140938401 -0.0897719935 
0.486755103 0.375253588 0.654257119 
-0.821120024 -0.130996004 -0.0233144797 
-1.93540001 -0.0430464111 1.00280404 
-4.44988489 0.0402875915 1.83101296 
-0.705444276 0.0198718403 -0.0872864723 
0.919310629 0.422973514 0.941566527 
0.393482 0.296599895 0.68430388 
-0.726191521 0.36056301 1.32341301 
-2.96427107 0.0378370583 1.54514003 
-1.16530299 0.342790306 1.40019202 
-1.11528599 0.34530279 1.33427203 
-3.10510707 0.0208090805 1.50671399 
-2.87335706 0.366964012 1.50546503 
-2.46102095 0.251006395 1.43074095 
-2.36068797 0.222097501 1.30733001 
0.172763601 -0.0219563507 0.507228673 
0.909015119 1.11162698 0.783919871 
-1.35281205 0.318843812 1.43287694 
-2.30366802 0.176788196 1.273808 
-2.89126205 0.0527835302 1.416816 
-0.905700624 0.350748986 1.32651806 
-2.64042306 0.358527511 1.450858 
-3.071136 -0.0293667 1.39682198 
-3.01516199 0.369551092 1.59101701 
0.915662229 1.07488704 0.797226787 
1.09386301 0.38190341 1.32325995 
-0.813439786 0.368891388 1.31015897 
-0.681065917 0.349035412 1.22780097 
-1.09672999 0.353264898 1.35162306 
0.953117013 0.381413102 1.32264698 
0.963476419 0.36520341 1.298226 
-1.791641 0.33108151 1.28060806 
-1.18987095 0.362132907 1.29732597 
-1.04488397 0.366044313 1.11434805 
-1.19147897 0.355324686 1.16557205 
-0.896007478 0.352372199 1.18544602 
1.07106996 0.335157186 1.34727502 
1.08468902 0.365868092 1.34762299 
1.08386695 0.380779505 1.34828806 
0.693148315 0.380634904 1.46498501 
1.06397295 0.339541495 1.38995695 
1.06990898 0.34424141 1.39187896 
0.820320606 0.344424993 1.39908695 
1.06238902 0.338016689 1.39719999 
1.01245296 0.348845601 1.38204503 
0.685091496 0.37957111 1.46253204 
0.841641486 0.353660613 1.44831002 
1.07103205 0.350512207 1.39218795 
1.070557 0.395067006 1.40196502 
1.03282106 0.335320711 1.39434397 
1.05845201 0.348186195 1.38656998 
1.05497205 0.340992987 1.45487201 
1.00687003 0.358141899 1.46338606 
1.05564499 0.345904589 1.34616804 
1.05773401 0.388908088 1.44823003 
1.05356598 0.393510312 1.46136105 
0.842348278 0.34206751 1.369874 
1.05881298 0.354250312 1.43227398 
1.030177 0.379832715 1.48037302 
0.973833978 0.383238614 1.54286897 
1.01243103 0.339147806 1.36958504 
1.00499594 0.390559703 1.52181304 
1.02403104 0.323377788 1.50412095 
1.06505501 0.390087813 1.41782999 
-1.98006904 0.278337002 1.194978 
0.820743382 0.34503451 1.27892804 
0.903231382 0.390744805 1.32776701 
0.975827098 0.390813887 1.53799605 
0.862297773 0.340168595 1.33579004 
1.04908395 0.347160012 1.37633395 
1.07376397 0.365497589 1.36253595 
0.81835711 0.343023092 1.37830198 
1.05034602 0.340686202 1.34431601 
-1.52744699 0.331177711 1.18693197 
1.02645898 0.338698 1.33155406 
1.08444703 0.390470088 1.34713805 
1.01013505 0.337937802 1.39138305 
-2.73788095 0.287666202 1.11174202 
1.01777601 0.40666461 1.52282906 
1.02936494 0.385166287 1.483634 
1.03404999 0.338598013 1.33658004 
0.846494198 0.34548229 1.37860203 
-2.64169788 0.247381598 1.36749899 
1.07258296 0.397350013 1.39346695 
0.868813574 0.341814399 1.35249496 
1.15015697 0.398341089 1.73419297 
1.04059398 0.336123705 1.33209705 
1.036044 0.345721006 1.34967101 
1.06877196 0.360601515 1.40608299 
1.05618596 0.400692105 1.45366299 
0.869490325 0.342582703 1.38686204 
0.859142721 0.341317713 1.39073598 
0.942048013 0.367933899 1.31905401 
1.05940998 0.351749599 1.42925298 
-4.61124706 1.27600706 2.42524695 
0.832001209 0.342051893 1.36938596 
1.02877903 0.337302208 1.36595404 
1.06379199 0.396956414 1.426296 
1.01274705 0.345045507 1.33358705 
-5.88595009 0.1667438 2.46585989 
1.08484197 0.352457494 1.33150196 
-1.54750204 0.307012111 1.45483804 
1.01662505 0.316689998 1.50990295 
0.8657552 0.347918093 1.40133595 
0.858154118 0.344761401 1.41440904 
0.847465813 0.342232287 1.36104202 
1.06548905 0.339165986 1.32331395 
0.942800283 0.363050014 1.30051506 
-7.89015198 0.3325122 2.8271091 
0.697715878 0.389556915 1.48220801 
1.07577097 0.336242497 1.321298 
-1.30904901 0.375909895 1.35774398 
0.828024387 0.358460814 1.43997705 
0.802851379 0.349476904 1.42399597 
0.91934669 0.355079114 1.25791705 
0.903298318 0.354726195 1.24719405 
0.920271277 0.351015091 1.25028598 
-1.41055298 0.316816688 1.47036505 
0.837500513 0.375072986 1.28537297 
0.922553599 0.362208307 1.30085599 
0.716156423 0.38986671 1.45163798 
0.852576911 0.387287706 1.28595304 
0.818404317 0.342653096 1.39707994 
1.04902804 0.337159395 1.35218799 
1.00318801 0.338645011 1.379439 
0.796590388 0.343146801 1.38651097 
0.941386282 0.359384 1.30676496 
0.919435918 0.359919786 1.29125297 
1.07021296 0.334215313 1.347121 
0.832476079 0.345233113 1.39050102 
1.08793199 0.36370191 1.31055498 
1.05489504 0.335772902 1.32164299 
1.05336702 0.336878389 1.39427602 
0.802362621 0.343600303 1.37142706 
0.785133183 0.342666894 1.402215 
0.947304726 0.390453309 1.31307805 
1.02593601 0.358229101 1.47641301 
0.826437712 0.342146099 1.33038497 
1.00942302 0.269960195 1.51105404 
0.8355515 0.354607791 1.20870399 
1.02011204 0.387450606 1.46328104 
1.00511396 0.3059192 1.51723194 
0.990665674 0.250612289 1.48878706 
0.967458129 0.384501606 1.55536699 
1.03085697 0.332455605 1.28629196 
1.06668496 0.338485688 1.39684999 
1.09064996 0.33362779 1.30315101 
1.03244197 0.336137712 1.30798197 
1.05254602 0.337785512 1.32071805 
0.935430884 0.355371714 1.26782501 
0.948448777 0.386509508 1.30856204 
0.956455112 0.356476396 1.28615797 
1.063182 0.33739081 1.31529999 
0.940131426 0.367255509 1.30973601 
0.965763688 0.349369109 1.27127099 
0.94987011 0.351034194 1.26135898 
0.95456779 0.348782003 1.27278805 
0.962876678 0.351546496 1.25861001 
-1.91969299 0.310176611 1.41897702 
-0.777146101 0.364506692 1.22573602 
-2.47858 0.34141919 0.891536474 
-1.36037695 0.361220986 1.01481402 
-2.31702805 0.354427487 0.90326792 
0.844888628 0.380992204 1.28939402 
0.862635076 0.367820591 1.27626896 
0.846493423 0.363429189 1.24014997 
0.845100284 0.371504694 1.27469599 
0.846235991 0.396709889 1.27782297 
0.886396289 0.358804911 1.24280906 
0.869079411 0.351134688 1.224419 
0.882065177 0.354316205 1.23366106 
0.935968578 0.351382703 1.26064503 
-1.983621 0.352455914 1.10522902 
-2.46031308 0.343118697 0.830610275 
-0.596688986 0.215913698 1.03231096 
-0.606823087 0.231555998 1.02457905 
-3.28187609 0.279926211 0.698946476 
-0.750191629 0.371572614 1.03399706 
-0.990103185 0.361557096 1.02183497 
-1.05442095 0.349999994 1.16975403 
-0.627712607 0.252401203 1.062361 
-0.119916096 0.3832573 0.984951615 
-0.716154575 0.364040703 0.883808613 
-1.90392005 0.371181905 0.965273499 
-0.838307679 0.290801197 0.857746124 
-2.87965012 0.357465893 1.36185396 
-2.11580896 0.326521993 1.01491106 
0.705348611 0.385769397 1.45899796 
0.688598573 0.386603087 1.43621099 
0.845735312 0.358106405 1.44643199 
0.839068472 0.367390096 1.27788401 
0.829920113 0.366891086 1.25137401 
0.783254683 0.343199909 1.36855602 
0.839730918 0.365130991 1.26068497 
0.797988415 0.363665611 1.221048 
0.7979334 0.368503302 1.23359597 
0.829542518 0.343726099 1.29598498 
0.796625614 0.357798904 1.21289301 
0.843435228 0.365134805 1.4418 
0.770467281 0.346920401 1.39844894 
-0.718525827 0.384864509 1.02373695 
0.777634084 0.368505597 1.21991098 
-0.7034477 0.27606979 0.998322129 
-0.721363485 0.284892708 1.03519297 
-0.73005569 0.305367112 1.01734602 
-1.02314794 0.271763504 0.854602873 
-1.74590302 0.330474585 1.29825306 
-0.700308323 0.34967199 1.09508097 
-1.04141498 0.217721894 0.996611178 
-0.679571986 0.379979312 0.992703676 
0.817952871 0.367480308 1.25048399 
0.841190815 0.341156811 1.39662099 
0.830254376 0.339632392 1.29220903 
0.735319674 0.390048891 1.470281 
1.03629696 0.331779212 1.285321 
1.09138596 0.329641014 1.30125999 
1.03959298 0.337373406 1.29569399 
0.808347225 0.357477814 1.22273803 
1.03869295 0.338784188 1.22934604 
0.788762927 0.34549731 1.38011897 
1.00803304 0.33610329 1.37993503 
0.796446323 0.377061397 1.23819304 
0.828755081 0.357273608 1.20175397 
0.76305151 0.373745412 1.21208596 
0.817379475 0.343449205 1.40046895 
0.799031615 0.358371407 1.19411695 
0.827928185 0.339098513 1.30046296 
0.810995221 0.334393114 1.35612595 
0.949400485 0.384081811 1.30350995 
0.882570207 0.404414207 1.33275294 
0.800587177 0.340932608 1.36736703 
0.804393828 0.345739186 1.16369402 
0.810600817 0.353610098 1.18628597 
1.10403097 0.344485402 1.25199795 
0.850001812 0.353399009 1.21329296 
0.993306279 0.346646786 1.21477902 
0.97239399 0.35279721 1.24680901 
0.863921523 0.346910685 1.20604599 
0.85989511 0.357884288 1.43267703 
-3.46537304 0.119951703 0.640570998 
-1.60336101 0.350601405 1.040025 
0.867141426 0.349181592 1.21615803 
0.765381098 0.351889908 1.15806496 
0.902584016 0.344473511 1.23094797 
0.954981029 0.352164686 1.21742201 
0.758978605 0.358343303 1.17935896 
0.831219971 0.349576294 1.19720304 
0.83477968 0.350395501 1.176566 
0.996562183 0.343560487 1.22102594 
0.899439216 0.344829112 1.18256605 
0.975289106 0.350502104 1.21774495 
0.849397898 0.343035787 1.19384301 
0.79572022 0.35316509 1.17826295 
0.980201483 0.349204689 1.20946503 
0.779642582 0.346398085 1.42500901 
-1.16748798 0.411216795 0.95984751 
0.941299319 0.360022902 1.28345001 
-1.45619297 0.352229893 1.22477496 
-1.29397595 0.35075289 1.52927804 
0.69496572 0.392836213 1.43325996 
1.05418706 0.337095708 1.35256803 
1.04107594 0.341766804 1.23176003 
0.961353719 0.341969788 1.19699502 
0.97091341 0.355069309 1.26378298 
-3.04446101 0.309281707 0.751648903 
-2.46687794 0.199414298 1.27225006 
1.01555502 0.339617014 1.396981 
1.00594902 0.3428258 1.51010799 
0.816189587 0.344366014 1.37186801 
-3.14900994 0.191209301 1.35094595 
0.866464019 0.340579003 1.38225901 
-2.02457309 0.162271097 1.01186395 
-1.80485797 0.347878188 1.23330796 
-1.286713 0.329075307 1.38755798 
0.747015715 0.357201815 1.17829502 
0.819644272 0.345271587 1.41254902 
0.599165082 0.374218404 1.10721803 
1.08327901 0.366121292 1.34019601 
0.962354898 0.346077889 1.19426095 
0.899769723 0.3646743 1.22065198 
0.987402678 0.351898789 1.23946905 
1.03182995 0.337051809 1.41768897 
0.716665328 0.37331 1.16826797 
0.782308578 0.351075292 1.168607 
0.940714121 0.353019297 1.22665 
-3.11985803 0.0638904572 0.65240109 
0.942867815 0.363686115 1.56497395 
0.889037311 0.339622289 1.39788997 
0.984535515 0.372133106 0.986722291 
0.96365571 0.392723113 0.936441422 
0.994585812 0.378464103 0.995587707 
0.745302796 0.214979097 0.586682379 
1.02706206 0.386592001 1.00773299 
0.705319822 0.369369894 0.410316914 
0.644225597 0.376765788 0.550790727 
0.672025025 0.38710779 0.575963974 
0.799601316 0.38052249 0.553986371 
